ply
format ascii 1.0
comment PCL generated
element vertex 1130
property float x
property float y
property float z
property uchar red
property uchar green
property uchar blue
element camera 0
property float view_px
property float view_py
property float view_pz
property float x_axisx
property float x_axisy
property float x_axisz
property float y_axisx
property float y_axisy
property float y_axisz
property float z_axisx
property float z_axisy
property float z_axisz
property float focal
property float scalex
property float scaley
property float centerx
property float centery
property int viewportx
property int viewporty
property float k1
property float k2
end_header
0.48436457 0.70430988 -1.255638 0 0 0
0.49146798 0.70308858 -1.2593317 0 0 0
0.46713462 0.71707577 -1.2517085 0 0 0
0.47463331 0.71468669 -1.2552304 0 0 0
0.48279577 0.71318644 -1.2597302 0 0 0
0.46525729 0.72571141 -1.2536368 0 0 0
0.4728089 0.72382343 -1.2580583 0 0 0
0.45828274 0.73462522 -1.2516353 0 0 0
0.4650377 0.73542899 -1.2568262 0 0 0
0.47071376 0.73248792 -1.2597551 0 0 0
0.44790244 0.74804688 -1.2516636 0 0 0
0.45529625 0.74369651 -1.2539672 0 0 0
0.46332464 0.74310654 -1.2585335 0 0 0
0.70685369 0.35923344 -1.2402341 112 93 29
0.68156457 0.36133856 -1.2419512 112 94 33
0.69752455 0.36795041 -1.2404109 111 93 29
0.70510834 0.3651039 -1.2415398 112 93 28
0.71323025 0.36576384 -1.2406495 112 93 29
0.67924452 0.37891549 -1.2463732 111 95 33
0.68509758 0.37386975 -1.2451596 111 93 32
0.69540292 0.37511396 -1.2421198 111 93 29
0.70472336 0.37416038 -1.2445774 112 93 29
0.71461201 0.37514621 -1.2426072 112 93 30
0.6722244 0.38526368 -1.2442236 111 94 33
0.68584859 0.38554782 -1.2417403 111 92 30
0.69490707 0.38401839 -1.2448137 111 92 28
0.70438099 0.38475734 -1.2479165 111 92 29
0.71518177 0.38501185 -1.2459234 112 93 29
0.72244143 0.38507327 -1.2408369 108 89 27
0.66685438 0.39372623 -1.2443346 111 93 34
0.67576814 0.39323053 -1.244683 111 92 31
0.68505704 0.3948358 -1.2441472 110 92 29
0.69528025 0.39455351 -1.2480447 111 92 28
0.70117188 0.3925781 -1.249508 112 92 28
0.71665162 0.39486226 -1.2478521 112 93 29
0.72439998 0.39428645 -1.2429852 108 88 26
0.73007864 0.39648443 -1.240234 106 87 24
0.65629905 0.40381017 -1.2400532 111 95 34
0.66625804 0.40341765 -1.24369 111 93 32
0.67558223 0.40443796 -1.2426707 111 92 29
0.68546999 0.40404612 -1.2470106 111 92 28
0.69231057 0.4003906 -1.2486962 111 93 29
0.71755719 0.4003906 -1.2487299 112 93 30
0.72500277 0.40476424 -1.2460287 107 88 25
0.73260421 0.40509501 -1.240587 106 86 25
0.65664589 0.41250122 -1.2436938 111 94 34
0.66627002 0.41670227 -1.2418586 110 91 29
0.67567694 0.41590673 -1.2461436 111 92 29
0.68247926 0.41309142 -1.2485133 111 92 28
0.72767442 0.41467223 -1.2481645 106 85 24
0.73417425 0.41641173 -1.2430629 106 85 24
0.64693785 0.42407212 -1.2401133 111 93 33
0.65592593 0.42458087 -1.2443421 110 92 32
0.66584706 0.42564735 -1.2444919 110 91 28
0.67423558 0.42521021 -1.2484972 111 91 28
0.73472583 0.42566904 -1.2455208 106 84 24
0.74027085 0.42764589 -1.2402712 106 85 24
0.64679378 0.43703216 -1.2431035 111 92 32
0.65532595 0.43574435 -1.2421526 110 91 29
0.66554588 0.43455601 -1.2472265 111 91 28
0.73663098 0.43510181 -1.2472029 105 85 23
0.74130255 0.43554688 -1.2413766 106 85 24
0.6332767 0.44890988 -1.2411602 111 93 34
0.64461696 0.44547066 -1.2449636 110 92 32
0.65478152 0.44563022 -1.2450924 110 91 29
0.66188008 0.44402605 -1.2486228 111 91 29
0.73867166 0.44503349 -1.2480471 105 85 23
0.7425198 0.44483224 -1.2427043 105 85 23
0.63674796 0.4570789 -1.2441405 110 93 32
0.64465916 0.45509112 -1.2420821 110 91 29
0.65373099 0.45430601 -1.2469308 110 91 29
0.74339604 0.45470929 -1.2449242 105 84 23
0.6232363 0.46771783 -1.2431023 110 92 33
0.63383162 0.46436399 -1.2436604 110 92 31
0.64456803 0.46555305 -1.2454761 110 91 28
0.65048397 0.46410877 -1.2483449 110 91 29
0.74547935 0.46492812 -1.2461294 105 84 23
0.6147449 0.47888631 -1.2406683 111 93 35
0.62483889 0.47746539 -1.244643 110 92 32
0.63521671 0.47451973 -1.2433109 110 91 28
0.64395732 0.47428149 -1.2479535 110 91 28
0.74704045 0.47447467 -1.2474844 104 83 23
0.61339074 0.48705092 -1.2436919 110 92 35
0.62549216 0.48535225 -1.2411952 110 92 29
0.63506609 0.48435742 -1.2466702 110 91 28
0.74804688 0.48168597 -1.2484826 103 83 22
0.60346472 0.49802768 -1.2417789 110 92 35
0.61718881 0.4932391 -1.2442722 109 91 31
0.62492609 0.49409601 -1.2441442 109 91 28
0.63234252 0.49325642 -1.2481979 109 90 29
0.59534866 0.50718296 -1.2401655 109 92 34
0.60564554 0.50641191 -1.2445738 109 91 33
0.61560452 0.50602257 -1.2430608 109 91 28
0.62469953 0.5051586 -1.2479844 110 91 27
0.59666193 0.51621079 -1.2455879 109 92 35
0.60567129 0.51587486 -1.2407664 109 90 28
0.61526811 0.51558363 -1.2461511 109 90 28
0.58973938 0.5209555 -1.2427619 109 92 35
0.59897149 0.52708197 -1.2407724 109 90 29
0.60547996 0.52534544 -1.2441747 109 90 28
0.61299562 0.52419305 -1.2482115 109 90 28
0.57932341 0.53374273 -1.2410777 108 91 36
0.58692855 0.534953 -1.2477629 88 74 29
0.595761 0.53546053 -1.2419603 109 89 28
0.60491067 0.5349701 -1.2475792 109 90 29
0.57508141 0.54373288 -1.2438169 7 6 1
0.58637202 0.54613125 -1.2408247 109 89 27
0.59563589 0.54500389 -1.2456408 109 89 27
0.60277545 0.54101563 -1.2485667 109 89 28
0.5747475 0.55413222 -1.2445626 36 30 9
0.58380312 0.55442089 -1.2429565 109 89 27
0.593256 0.55402458 -1.2479538 108 89 27
0.56680995 0.56458205 -1.2436674 36 30 9
0.5752486 0.56547475 -1.2422583 109 89 28
0.58397776 0.56365007 -1.2468506 109 89 27
0.59179688 0.56054688 -1.249961 109 89 27
0.55629176 0.57457101 -1.2450207 0 0 0
0.56470692 0.57482362 -1.2454984 54 44 14
0.57459491 0.57450032 -1.2459099 109 89 28
0.58007813 0.5719316 -1.2481642 109 90 28
0.54817128 0.5856697 -1.2442445 0 0 0
0.55543619 0.58643812 -1.2446969 54 44 14
0.56485087 0.58437037 -1.244184 108 89 28
0.57312155 0.58163941 -1.2482631 109 88 28
0.53743815 0.59644008 -1.2426457 0 0 0
0.54624343 0.59780502 -1.2439538 54 44 14
0.55497646 0.59551364 -1.242873 108 88 28
0.56286424 0.59497458 -1.2473576 108 88 27
0.53371698 0.60504067 -1.2434816 0 0 0
0.54584944 0.60586715 -1.2418492 108 88 28
0.5546633 0.60485011 -1.2467977 107 88 27
0.56054688 0.60351563 -1.2496769 109 89 28
0.49762374 0.61061525 -1.2405279 0 0 0
0.52635366 0.61432183 -1.2449329 0 0 0
0.53475171 0.61547965 -1.245419 53 44 14
0.54460865 0.61504644 -1.2457123 107 87 27
0.55244839 0.61097425 -1.2482888 108 87 27
0.5053668 0.6266216 -1.2444661 0 0 0
0.51611567 0.6239689 -1.2453326 0 0 0
0.52485299 0.62663221 -1.2438431 53 43 13
0.53550369 0.62568974 -1.2448823 107 88 28
0.54189521 0.62422699 -1.2484618 107 87 27
0.51781625 0.63745505 -1.2404228 107 88 27
0.52615839 0.63495636 -1.2441329 106 87 27
0.53442997 0.63286036 -1.2479503 107 87 27
0.50972539 0.64641833 -1.2402648 107 88 27
0.51562339 0.64456642 -1.2426656 107 87 26
0.524176 0.64420187 -1.2475454 107 86 27
0.49865386 0.6589272 -1.2402341 106 87 27
0.50654131 0.65506816 -1.2427852 107 86 26
0.51531869 0.65365601 -1.2472694 106 87 26
0.52148438 0.65039063 -1.249135 108 88 27
0.48916206 0.66992188 -1.240234 106 87 27
0.49521595 0.66693801 -1.2422225 106 87 27
0.50484514 0.66462547 -1.2468418 106 86 27
0.48510939 0.67636985 -1.2414019 107 87 27
0.49407491 0.67528039 -1.2462167 106 87 28
0.50195313 0.67027295 -1.248047 106 87 28
0.4770776 0.68683827 -1.2416974 0 0 0
0.48438451 0.68561566 -1.2460514 50 41 13
0.4908289 0.68264395 -1.2486674 106 87 29
0.46697354 0.69604272 -1.2404518 0 0 0
0.47444275 0.6954872 -1.2447392 0 0 0
0.48242885 0.69336694 -1.2480427 0 0 0
0.45871082 0.70663095 -1.2405932 0 0 0
0.46492615 0.70499563 -1.2437844 0 0 0
0.47208026 0.70368016 -1.2478989 0 0 0
0.41986081 0.7168135 -1.2441585 0 0 0
0.42032319 0.71679688 -1.244141 0 0 0
0.45612094 0.71501714 -1.2421837 0 0 0
0.46428442 0.71416229 -1.2481164 0 0 0
0.44721156 0.72701997 -1.2406321 0 0 0
0.45507661 0.72449017 -1.2451708 0 0 0
0.46196944 0.72070318 -1.2491225 0 0 0
0.43955019 0.73642057 -1.2401887 0 0 0
0.44523203 0.73424643 -1.2430016 0 0 0
0.45268238 0.73358744 -1.247395 0 0 0
0.40445596 0.74444473 -1.240234 0 0 0
0.42735335 0.74762696 -1.2404349 0 0 0
0.43556681 0.74383646 -1.2426437 0 0 0
0.44511953 0.74300158 -1.2472458 0 0 0
0.45117193 0.74023438 -1.24965 0 0 0
0.70898438 0.3261719 -1.2301301 113 95 30
0.69726568 0.3378906 -1.2311502 112 94 31
0.70477533 0.33477184 -1.2320341 113 94 31
0.7127654 0.33552963 -1.231637 114 95 30
0.67956746 0.34905955 -1.2347388 111 95 35
0.68443584 0.34453529 -1.2317233 111 94 32
0.69493163 0.3455033 -1.2327495 111 93 30
0.70481902 0.34663165 -1.2356921 112 95 29
0.71515244 0.34600496 -1.2332458 114 95 30
0.72070318 0.34765628 -1.2306763 111 92 27
0.67288315 0.3524164 -1.231492 112 95 35
0.68455768 0.3544699 -1.2357097 111 94 31
0.69567007 0.35585958 -1.2362537 112 94 30
0.7052893 0.35541597 -1.2387052 112 94 29
0.71463984 0.35485539 -1.2361578 113 94 29
0.72215354 0.3554818 -1.2319049 109 91 27
0.67451036 0.36432844 -1.2343647 111 94 33
0.68534714 0.36528575 -1.234674 111 94 30
0.69441772 0.36428422 -1.2381456 112 94 29
0.70117188 0.3613281 -1.239545 113 93 29
0.71616572 0.36369506 -1.2374728 112 93 29
0.7240032 0.36590603 -1.233364 108 90 26
0.66685915 0.37492079 -1.2329886 111 94 33
0.67457765 0.37356061 -1.2362788 111 94 32
0.68384117 0.37472212 -1.2371792 111 94 30
0.71679688 0.37304693 -1.2397209 113 94 31
0.72518814 0.37465808 -1.2354858 107 88 25
0.73150301 0.3769531 -1.231512 107 87 25
0.65724093 0.38446665 -1.2325666 111 94 34
0.66609633 0.38431752 -1.2350247 111 93 32
0.67519259 0.38424149 -1.2360374 111 93 31
0.68164063 0.38296276 -1.2391489 111 93 30
0.72740638 0.38375297 -1.2372524 107 87 25
0.7330724 0.38549921 -1.2331117 107 87 25
0.65534317 0.39474121 -1.2331573 111 94 33
0.66568536 0.39494264 -1.2345663 111 93 30
0.67264932 0.39401728 -1.2380313 111 93 30
0.73474741 0.39419085 -1.2347815 107 87 25
0.64692855 0.40423393 -1.2322844 112 94 34
0.65579492 0.40518919 -1.2323463 111 93 30
0.66428524 0.4040052 -1.2367165 111 92 30
0.73616976 0.40324345 -1.236514 106 86 25
0.74052256 0.40486407 -1.2325481 106 86 25
0.64514637 0.41657507 -1.233655 111 93 33
0.65446925 0.41569841 -1.2352335 110 92 30
0.66210938 0.41378349 -1.2387397 110 91 29
0.7379629 0.41210943 -1.2378137 107 86 25
0.7420367 0.41682532 -1.2343163 106 86 24
0.63631237 0.42568874 -1.2329479 111 94 34
0.64491385 0.42587903 -1.2329284 111 92 30
0.65298784 0.42535195 -1.2373465 110 91 29
0.74378073 0.42591056 -1.2352868 106 86 24
0.6360299 0.43516922 -1.2347444 110 93 33
0.64475113 0.43523461 -1.2356375 110 91 29
0.65039063 0.43374401 -1.2386786 110 91 29
0.74565762 0.43551877 -1.2353401 106 85 23
0.62594694 0.44667178 -1.2352685 111 93 34
0.63470334 0.44564381 -1.233603 110 92 30
0.64313179 0.4438467 -1.237699 110 92 30
0.74754077 0.44563872 -1.236006 105 85 23
0.61432153 0.45882365 -1.2319069 111 93 35
0.62433827 0.4569293 -1.2361169 110 93 32
0.63463837 0.45509169 -1.236407 110 92 29
0.74804688 0.453125 -1.2374845 106 85 24
0.61606133 0.46821174 -1.234903 111 93 33
0.62476909 0.46504432 -1.2340512 111 92 28
0.6316123 0.46367934 -1.2374576 110 92 29
0.60348916 0.47901011 -1.2325342 110 93 35
0.61673164 0.47531298 -1.2324476 110 92 29
0.62443078 0.47464153 -1.2369348 110 92 29
0.63085938 0.4707031 -1.2395279 111 93 29
0.59550828 0.48839042 -1.2314441 110 93 35
0.60654485 0.48600513 -1.2354411 110 92 33
0.61538875 0.48419806 -1.2349737 110 91 29
0.62304688 0.48242193 -1.238627 110 92 28
0.59819156 0.49574915 -1.2326446 110 92 32
0.60604048 0.49456188 -1.2330717 110 92 29
0.61344326 0.49284741 -1.2371742 110 91 28
0.58729237 0.50148177 -1.2319906 109 92 35
0.5969187 0.50374627 -1.2350453 109 91 32
0.60489613 0.50524497 -1.2361858 110 91 30
0.61132813 0.50195313 -1.2390631 110 91 29
0.57949954 0.51462603 -1.2324831 110 93 35
0.58662629 0.51612836 -1.2351344 110 91 33
0.59533471 0.51574337 -1.2342812 109 91 29
0.60201895 0.51367188 -1.2376294 110 91 28
0.57596791 0.52446246 -1.2344713 110 92 35
0.58559513 0.52631998 -1.232332 109 91 29
0.59407645 0.52477914 -1.2368442 109 90 28
0.56991994 0.53239799 -1.2337451 107 90 34
0.57674843 0.5378539 -1.231944 109 90 28
0.58406907 0.53497356 -1.2349548 109 90 27
0.59179688 0.53320313 -1.2387052 109 89 27
0.56547207 0.54493952 -1.2335989 37 31 9
0.57440078 0.54549992 -1.2336652 109 90 28
0.58236438 0.54346484 -1.2375252 109 90 28
0.55614501 0.55389309 -1.2340344 0 0 0
0.56411362 0.55506265 -1.2356434 54 45 14
0.57373083 0.55479622 -1.2368658 109 90 28
0.55357063 0.56535459 -1.2344431 36 30 9
0.56461424 0.56415504 -1.2352704 109 89 28
0.57226563 0.56222099 -1.2389355 109 90 29
0.53884017 0.57667691 -1.2327678 0 0 0
0.54635352 0.5742346 -1.2341828 36 30 9
0.55461806 0.57457942 -1.2339685 109 90 29
0.56139261 0.5732345 -1.2373441 109 89 28
0.53408766 0.58560133 -1.233481 0 0 0
0.54481822 0.58527774 -1.2365056 54 44 14
0.55403084 0.58320642 -1.2369884 108 89 28
0.56054688 0.58007813 -1.239717 108 90 28
0.52668065 0.59471655 -1.233507 0 0 0
0.53503698 0.59688705 -1.2359896 54 44 14
0.54394263 0.594868 -1.2357856 108 88 28
0.55273438 0.59179688 -1.239976 108 89 29
0.48725453 0.60703146 -1.2323642 0 0 0
0.49394917 0.60684299 -1.2354035 0 0 0
0.51673996 0.60865772 -1.2332332 0 0 0
0.52599686 0.60678208 -1.2349331 54 44 14
0.53514856 0.60492289 -1.2350831 108 89 27
0.54101563 0.60405791 -1.2381405 108 89 27
0.49529049 0.6186685 -1.2348193 0 0 0
0.50857019 0.61538637 -1.2320092 0 0 0
0.51729041 0.61893523 -1.2343276 53 44 13
0.52561927 0.61564845 -1.234385 107 88 28
0.53325576 0.61250341 -1.2373878 108 88 28
0.48289436 0.62583303 -1.2375818 0 0 0
0.50976563 0.62695313 -1.2301179 109 89 28
0.51599753 0.62527847 -1.2334219 107 88 27
0.52357513 0.62390888 -1.2374489 107 87 27
0.50720382 0.63629627 -1.2331482 107 87 26
0.51409209 0.63380134 -1.2360373 107 88 27
0.52148438 0.63085938 -1.2393041 107 88 27
0.49690282 0.64540243 -1.232226 107 88 28
0.50442863 0.64421833 -1.2357806 107 87 27
0.48709682 0.65691215 -1.2317619 107 87 28
0.49451771 0.65405267 -1.2352172 106 87 27
0.50312501 0.65175784 -1.2390193 106 86 27
0.47754499 0.6682353 -1.232452 107 87 28
0.48437408 0.66577327 -1.2347928 107 87 27
0.49111021 0.66268432 -1.2373217 107 87 28
0.46778235 0.67773438 -1.2315563 57 46 16
0.47488719 0.67543918 -1.2347679 93 76 25
0.48242193 0.67165583 -1.237184 107 88 27
0.45898443 0.68945318 -1.2317221 0 0 0
0.46489176 0.68569851 -1.2336866 3 2 0
0.47289127 0.68405026 -1.2376159 0 0 0
0.45621064 0.69544047 -1.2336379 0 0 0
0.46359107 0.69432437 -1.2372259 0 0 0
0.41619244 0.70546943 -1.2357644 0 0 0
0.44660357 0.70624954 -1.2316704 0 0 0
0.45359895 0.70388693 -1.2357125 0 0 0
0.4394531 0.71469355 -1.2305423 0 0 0
0.44516036 0.71521527 -1.2342196 0 0 0
0.45096508 0.71317583 -1.2370474 0 0 0
0.43723306 0.72577947 -1.2330922 0 0 0
0.44398424 0.7229445 -1.2365193 0 0 0
0.41992193 0.73819977 -1.2315727 0 0 0
0.42668015 0.73550433 -1.2335112 0 0 0
0.4342725 0.73350078 -1.236149 0 0 0
0.4042969 0.74414063 -1.239695 0 0 0
0.41909587 0.74345022 -1.2326615 0 0 0
0.42466962 0.74332166 -1.2363375 0 0 0
0.43374401 0.74023438 -1.2393054 0 0 0
0.70564997 0.29722476 -1.2207088 113 95 30
0.71310484 0.29707435 -1.2206228 115 96 31
0.69677532 0.30529892 -1.2206933 111 94 31
0.70515186 0.30518508 -1.2229176 113 95 31
0.71521026 0.30516377 -1.221602 115 97 31
0.68770748 0.31668481 -1.2209557 111 94 31
0.69521821 0.31494564 -1.2233338 112 95 32
0.70436835 0.31395671 -1.2254852 113 95 32
0.71513164 0.3141821 -1.2241516 114 95 31
0.72104049 0.31616044 -1.2209438 109 90 26
0.67912024 0.32469285 -1.2251654 111 95 34
0.68493593 0.32451671 -1.2258824 112 94 33
0.69541675 0.32428542 -1.2265165 112 94 30
0.7047354 0.32350865 -1.2286128 113 95 30
0.71496344 0.32417518 -1.2270342 114 95 30
0.72358012 0.32389796 -1.2215871 109 90 26
0.67339152 0.33512247 -1.2227836 111 94 33
0.68340766 0.33290482 -1.2274656 111 94 32
0.69430691 0.33351907 -1.2287176 112 93 30
0.7165193 0.3342239 -1.2282369 114 95 30
0.72448844 0.33451545 -1.2232176 108 89 26
0.66940719 0.34728763 -1.221016 110 93 30
0.67483056 0.34454405 -1.2259369 111 94 32
0.68467396 0.34477273 -1.228068 111 93 30
0.72580218 0.34528154 -1.2260336 108 89 26
0.73209858 0.34863472 -1.2207671 108 88 26
0.66504216 0.35459727 -1.2242229 111 94 33
0.67600769 0.35492656 -1.2270401 111 93 30
0.68164063 0.35233384 -1.2290933 111 94 31
0.7279864 0.3560828 -1.2279553 108 89 25
0.7327944 0.35583323 -1.222911 108 88 25
0.65659922 0.36554366 -1.222716 111 94 33
0.66510701 0.36450106 -1.2268697 110 93 32
0.67399871 0.36382434 -1.2286825 111 93 30
0.72890651 0.3613281 -1.2287874 108 89 26
0.73475891 0.36547118 -1.2242463 107 88 25
0.64935279 0.37749609 -1.2236855 112 95 35
0.65589511 0.3747732 -1.2249591 111 94 33
0.66527796 0.37403193 -1.2274439 110 93 31
0.73609066 0.3742215 -1.2259966 107 87 25
0.74058026 0.37517697 -1.2209719 108 88 26
0.64593923 0.38506624 -1.2222601 111 94 33
0.65417588 0.38445345 -1.2242633 111 93 30
0.6621117 0.38269049 -1.2285604 111 93 30
0.73724669 0.38329923 -1.2281812 107 87 25
0.7422902 0.38531446 -1.2227447 107 88 25
0.63911927 0.39815396 -1.2220898 111 94 32
0.64577729 0.39442623 -1.2253866 111 94 32
0.65375507 0.39392382 -1.2270073 111 93 30
0.73979658 0.3925781 -1.2285161 107 87 24
0.7430774 0.39492676 -1.2248789 107 87 25
0.63570893 0.4042533 -1.2226307 112 94 34
0.64459443 0.4049266 -1.2260666 111 92 29
0.65158886 0.40159228 -1.2286958 111 93 30
0.74499661 0.40456119 -1.225289 107 86 24
0.62853742 0.41992193 -1.2207031 111 94 31
0.63479906 0.41477001 -1.2255601 111 93 33
0.64315677 0.41554829 -1.2286255 110 92 29
0.74632579 0.41497394 -1.2270608 106 86 25
0.62471187 0.42456883 -1.2228211 111 94 34
0.6348142 0.42589647 -1.226571 111 93 30
0.74770814 0.42604366 -1.2282346 106 86 24
0.61603951 0.43725878 -1.2214191 111 94 33
0.62317824 0.43596727 -1.2264609 111 93 34
0.63285375 0.43458283 -1.2281936 110 92 30
0.74804688 0.4316406 -1.22943 107 86 24
0.61322129 0.44644696 -1.2229052 110 94 32
0.62484783 0.44452855 -1.2273803 110 93 30
0.60438162 0.45800936 -1.2213291 111 93 33
0.61513388 0.45268017 -1.2266078 110 93 31
0.62262297 0.45274812 -1.2287928 110 93 30
0.59420013 0.4697364 -1.2212241 111 94 35
0.60516131 0.46515226 -1.2256626 111 93 34
0.61416531 0.4644185 -1.2272335 110 92 30
0.59758759 0.47461957 -1.223092 110 93 33
0.60499072 0.47489989 -1.2252605 111 92 29
0.61219102 0.47236437 -1.2286677 111 93 30
0.58836067 0.48222232 -1.2233458 111 93 35
0.59563184 0.48260254 -1.2251644 110 92 32
0.6045661 0.48444128 -1.2285359 110 92 30
0.57827497 0.49469078 -1.2217677 111 93 36
0.58668041 0.49313006 -1.2241211 110 92 33
0.59533006 0.49415952 -1.2263218 110 92 29
0.60250521 0.49023443 -1.2291654 110 92 30
0.57586837 0.50598478 -1.2235541 109 92 34
0.58437526 0.50567728 -1.2239554 110 91 30
0.5926764 0.5048064 -1.2285525 110 91 31
0.56935591 0.51307321 -1.2239249 110 93 36
0.5747965 0.51569492 -1.2217462 110 92 30
0.58358318 0.51518053 -1.2269082 110 91 30
0.56486005 0.52409267 -1.2235445 109 92 33
0.57455701 0.52543032 -1.2254362 110 91 30
0.58136046 0.52279747 -1.2285017 110 92 30
0.55546361 0.5358206 -1.2207997 69 57 20
0.56223226 0.53409475 -1.2262528 80 67 23
0.57365751 0.53438157 -1.2285208 110 91 28
0.55334628 0.54550064 -1.2248071 36 30 10
0.56423098 0.54448652 -1.2268149 110 90 29
0.53935736 0.55502641 -1.2228124 0 0 0
0.54554856 0.55625343 -1.2236761 55 45 15
0.55512083 0.5552212 -1.2255969 110 90 30
0.56081057 0.55417228 -1.2286618 109 90 28
0.53471959 0.56697047 -1.2224486 36 30 10
0.54345357 0.5656004 -1.2267582 54 45 14
0.55389035 0.56255937 -1.2280606 110 90 29
0.52473474 0.57550013 -1.2224472 0 0 0
0.53456688 0.57595283 -1.2255733 54 45 15
0.54441017 0.57361239 -1.2270128 109 90 29
0.52593267 0.58645594 -1.2245729 54 45 14
0.53506798 0.5843839 -1.2254813 109 89 29
0.54132706 0.58154851 -1.2284619 109 90 30
0.50710624 0.59962529 -1.2222595 0 0 0
0.51514554 0.59488523 -1.2228969 27 22 7
0.52335238 0.59584069 -1.2272567 54 44 14
0.53397644 0.59338582 -1.2287565 109 89 28
0.50779569 0.60742557 -1.2233925 54 45 14
0.51485407 0.60492611 -1.2265867 54 44 14
0.52307659 0.60520422 -1.2280693 108 88 27
0.49526832 0.61676502 -1.2231319 27 22 6
0.50320017 0.61663103 -1.2248763 54 44 14
0.5151813 0.61452943 -1.2279146 108 88 28
0.52148438 0.61132813 -1.2299101 108 89 29
0.47390851 0.62053072 -1.2205534 0 0 0
0.49653339 0.62562323 -1.2216034 108 89 27
0.50544345 0.6245628 -1.2264132 108 89 28
0.48652866 0.63668942 -1.2215291 108 88 28
0.49407777 0.63472766 -1.2247719 108 89 29
0.50284034 0.63249665 -1.2286117 108 88 27
0.47842702 0.6450206 -1.2210103 108 88 29
0.4848673 0.64443624 -1.2244064 108 88 28
0.4919807 0.64374322 -1.2284567 108 88 29
0.46687514 0.65826982 -1.2206604 108 88 29
0.47485751 0.65436697 -1.2230788 107 88 28
0.48353875 0.65327591 -1.2278403 107 87 28
0.45846865 0.66769731 -1.2211871 107 88 29
0.46499094 0.66574419 -1.2239982 107 88 29
0.47356054 0.66421545 -1.227865 107 87 28
0.45546621 0.67590398 -1.2230109 55 45 15
0.46438178 0.67534631 -1.2284518 109 90 31
0.4395102 0.68951678 -1.2206663 0 0 0
0.44594279 0.68573493 -1.2223903 0 0 0
0.45463461 0.68524915 -1.2270664 0 0 0
0.46000963 0.68164063 -1.2285161 0 0 0
0.39657313 0.69365019 -1.2208327 0 0 0
0.43710175 0.69561225 -1.2217215 0 0 0
0.4452365 0.69540322 -1.2264884 0 0 0
0.45117193 0.69246191 -1.2292446 0 0 0
0.42850515 0.7078355 -1.2204897 0 0 0
0.43571842 0.70478404 -1.2246169 0 0 0
0.44366276 0.70335364 -1.2282408 0 0 0
0.41992193 0.71990651 -1.220703 0 0 0
0.42595747 0.71508038 -1.2210771 0 0 0
0.43362573 0.71505517 -1.2265161 0 0 0
0.41667047 0.72583097 -1.222155 0 0 0
0.42569852 0.72471195 -1.2262298 0 0 0
0.4319582 0.72311693 -1.2283298 0 0 0
0.40615663 0.73525429 -1.2213221 0 0 0
0.41526937 0.73453534 -1.2262386 0 0 0
0.42267734 0.73242188 -1.2293425 0 0 0
0.3797099 0.74414063 -1.220703 0 0 0
0.38562265 0.74378079 -1.2209615 0 0 0
0.39615434 0.74285477 -1.2213755 0 0 0
0.40563208 0.74215484 -1.2246836 0 0 0
0.4142516 0.74313462 -1.2284223 0 0 0
0.42772186 0.74790859 -1.2286544 0 0 0
0.70898438 0.25976563 -1.210178 116 97 32
0.70706695 0.26683483 -1.2122887 114 96 30
0.71289068 0.26590404 -1.2110531 115 97 31
0.69625324 0.27720162 -1.2118528 113 95 31
0.7042526 0.27491462 -1.2138314 114 96 31
0.71429306 0.27568835 -1.2130866 115 97 32
0.68843412 0.28699413 -1.2115651 112 94 30
0.69429195 0.28482762 -1.2134489 112 95 31
0.70499086 0.28496101 -1.2169523 113 95 30
0.71546972 0.28463909 -1.2152809 114 96 31
0.72070313 0.28588074 -1.2118956 110 92 28
0.67812955 0.2950508 -1.2106204 111 94 32
0.68603206 0.29544383 -1.2128948 112 94 30
0.69523603 0.29473656 -1.216947 112 95 31
0.70405912 0.29169497 -1.2188085 113 96 31
0.71636027 0.29441556 -1.2171936 114 96 32
0.72363043 0.29539934 -1.2129142 109 90 27
0.67562473 0.30270088 -1.2124084 111 94 33
0.68365896 0.30470139 -1.2172769 112 94 32
0.69335938 0.30483776 -1.2191956 112 95 31
0.71679688 0.3027344 -1.2199121 116 98 33
0.72458047 0.3047837 -1.2148864 110 90 27
0.66971946 0.31697926 -1.2135206 111 94 34
0.67535967 0.31258687 -1.2158868 111 94 33
0.68363452 0.31290483 -1.2176957 112 94 31
0.72608107 0.31376407 -1.2166206 109 89 26
0.73191077 0.31648436 -1.2122459 108 89 27
0.66528195 0.32396087 -1.2135416 112 94 33
0.67368066 0.32309908 -1.2180305 111 94 33
0.68164068 0.3222656 -1.2196641 111 93 31
0.72874087 0.32290244 -1.217384 109 90 26
0.73235297 0.32405722 -1.2139034 108 88 26
0.65763879 0.33720994 -1.2117783 111 93 31
0.66386658 0.33266813 -1.2152545 111 94 33
0.67304838 0.33151728 -1.2183504 110 93 31
0.72851568 0.3300781 -1.2193921 107 88 25
0.73412883 0.33423737 -1.2146233 107 87 26
0.65462494 0.3439624 -1.2132753 111 94 34
0.66374928 0.34368336 -1.2184739 111 94 32
0.73548031 0.34547669 -1.2154419 107 88 25
0.74023438 0.3496094 -1.2107772 108 88 25
0.64652759 0.35577485 -1.2118051 111 94 35
0.65502179 0.35458532 -1.2167016 111 94 33
0.66210938 0.3535156 -1.218994 111 94 31
0.73693621 0.3548322 -1.2175212 108 88 25
0.74048257 0.35511062 -1.2132342 108 88 25
0.63917714 0.36870992 -1.2114184 111 95 33
0.64606881 0.36554334 -1.2148581 111 94 33
0.65294075 0.36419529 -1.2173841 110 93 31
0.73924887 0.3613281 -1.216797 108 89 26
0.74218112 0.36589783 -1.2149267 108 88 26
0.638026 0.37609297 -1.21313 112 94 33
0.64550948 0.37420845 -1.2176201 111 94 33
0.65039063 0.3745493 -1.2188367 111 93 32
0.7444877 0.37527895 -1.2153407 108 87 25
0.62991905 0.38727018 -1.2124615 112 95 36
0.63563162 0.38398927 -1.214485 111 95 33
0.64361191 0.38370365 -1.217708 111 94 31
0.74636519 0.38372949 -1.2154505 107 87 25
0.62853372 0.39582205 -1.21398 111 94 32
0.63546616 0.39361411 -1.2180346 111 94 32
0.74767268 0.39385834 -1.2165698 107 88 24
0.61914063 0.4082031 -1.211069 111 94 32
0.62495852 0.4059442 -1.2152081 112 94 34
0.6317845 0.40278828 -1.2175841 111 94 30
0.74804688 0.4003906 -1.2191581 107 87 24
0.61454862 0.41756988 -1.212239 111 94 33
0.62276888 0.41556427 -1.2168403 111 94 33
0.63085938 0.41210943 -1.219475 111 93 31
0.60493237 0.42839396 -1.2106433 111 95 34
0.61405301 0.42717481 -1.2166064 111 94 34
0.62304688 0.4238281 -1.2188441 112 95 31
0.59960938 0.4394531 -1.2101431 112 95 31
0.60352015 0.43671358 -1.2126948 111 94 33
0.61360312 0.43493974 -1.2171979 111 94 30
0.59758282 0.44705051 -1.2126094 111 94 33
0.60549355 0.44232169 -1.2163898 111 94 33
0.61132813 0.4433594 -1.2189029 111 95 30
0.59597474 0.45470238 -1.2141297 111 93 34
0.60357958 0.45241207 -1.2182813 111 94 32
0.58693016 0.463312 -1.2118692 111 94 34
0.59518462 0.46283573 -1.2167951 111 93 33
0.57802874 0.475532 -1.213294 112 95 37
0.5857054 0.4735139 -1.2148757 110 93 32
0.59299278 0.47343719 -1.217376 110 92 29
0.57537258 0.48550463 -1.2141904 111 93 35
0.58387423 0.48232293 -1.2177427 110 93 32
0.59179688 0.48242193 -1.2199521 109 92 29
0.56851012 0.49475983 -1.2121472 111 93 33
0.57445955 0.49480695 -1.2140777 111 92 31
0.5814712 0.49302843 -1.2177275 111 92 30
0.55998427 0.50389981 -1.2118373 111 94 36
0.56623101 0.50426495 -1.2143593 110 92 33
0.5731433 0.50530809 -1.2171891 110 92 30
0.55610919 0.51448607 -1.2127318 110 93 34
0.5628041 0.51586211 -1.2171445 110 92 33
0.57226563 0.51367188 -1.2194852 110 92 30
0.54899907 0.52647913 -1.2123545 110 92 33
0.55434436 0.52530152 -1.2155671 107 89 32
0.56242496 0.5241549 -1.2173743 110 91 30
0.54377997 0.53554988 -1.2134975 38 31 10
0.55447906 0.53477567 -1.2171979 110 91 30
0.53407955 0.54674006 -1.2126563 36 30 10
0.54346228 0.54577005 -1.2175961 55 45 15
0.55273438 0.54268974 -1.2191699 110 91 30
0.52607715 0.55558562 -1.2127532 0 0 0
0.53413618 0.5562427 -1.2161062 55 45 15
0.54240108 0.55469596 -1.2174698 110 91 29
0.51555377 0.56929111 -1.2130959 0 0 0
0.52569079 0.56710094 -1.2152319 54 45 14
0.53495908 0.56395698 -1.2165166 109 90 30
0.54101563 0.56054688 -1.219124 110 91 30
0.5098772 0.57362306 -1.2107034 0 0 0
0.51651019 0.57757866 -1.2143502 55 45 15
0.52536494 0.5743373 -1.2151638 109 90 29
0.53320313 0.57226563 -1.219111 109 91 30
0.50753772 0.5856061 -1.2132629 36 30 10
0.51476401 0.58470798 -1.2164407 54 45 14
0.52360326 0.58245647 -1.2175976 109 90 30
0.49804375 0.59653282 -1.2124882 36 30 10
0.50609547 0.59634876 -1.2141306 108 90 29
0.51413381 0.59427726 -1.217715 109 89 29
0.48886412 0.60548258 -1.2125312 0 0 0
0.49746293 0.60441577 -1.2153734 54 44 14
0.5046491 0.6052748 -1.2171121 109 90 28
0.46379727 0.61576223 -1.2171228 0 0 0
0.48373732 0.61437392 -1.2119751 54 44 14
0.4926917 0.61349607 -1.2176446 54 44 14
0.50195313 0.61132813 -1.2180541 110 90 30
0.4785156 0.62802166 -1.2121847 108 89 28
0.48444167 0.6248498 -1.2142004 108 89 28
0.4910419 0.62395883 -1.2177039 108 89 28
0.46679693 0.63867188 -1.2105321 109 90 30
0.47496963 0.63559598 -1.2139978 108 88 28
0.48296168 0.63339293 -1.2176347 108 88 28
0.46516562 0.64472443 -1.212517 107 88 29
0.47327188 0.64425349 -1.2174047 108 88 29
0.45654005 0.65586001 -1.2133861 107 88 29
0.46411428 0.6533559 -1.2163849 108 88 28
0.4707031 0.65039063 -1.218626 107 88 29
0.44633049 0.66642153 -1.2124174 78 64 21
0.45343485 0.66539752 -1.2166259 107 88 28
0.43848166 0.67649025 -1.212643 0 0 0
0.44498399 0.67528391 -1.215997 0 0 0
0.45117193 0.67382813 -1.219022 63 52 18
0.39630732 0.68581414 -1.216599 0 0 0
0.42706543 0.68840146 -1.2114432 0 0 0
0.43519449 0.6848135 -1.21507 0 0 0
0.44171742 0.68164063 -1.217666 0 0 0
0.3964844 0.69335938 -1.219931 0 0 0
0.41992193 0.69726568 -1.210919 0 0 0
0.42597297 0.69548261 -1.2140937 0 0 0
0.43237236 0.69414741 -1.2180548 0 0 0
0.41787982 0.70507038 -1.2128462 0 0 0
0.42475837 0.70451915 -1.2172348 0 0 0
0.40676397 0.7171064 -1.2117878 0 0 0
0.41533133 0.7151708 -1.214942 0 0 0
0.42250326 0.71289063 -1.2175474 0 0 0
0.39803386 0.72851563 -1.2116389 0 0 0
0.40507889 0.72509044 -1.2144208 0 0 0
0.41278785 0.72136658 -1.2173426 0 0 0
0.3769531 0.73848248 -1.216797 0 0 0
0.39580414 0.73380852 -1.2135339 0 0 0
0.4023402 0.73335361 -1.2162061 0 0 0
0.37688321 0.74023438 -1.2175624 0 0 0
0.39224672 0.74023438 -1.2168961 0 0 0
0.4026224 0.74023438 -1.216797 0 0 0
0.70754522 0.22879413 -1.2007903 115 96 32
0.69769537 0.23680945 -1.2009245 113 96 31
0.70426667 0.23368706 -1.2017674 114 96 31
0.71273237 0.23438974 -1.20099 116 98 32
0.68945318 0.2480469 -1.200491 112 94 31
0.69455028 0.2441318 -1.2016623 112 95 31
0.7047106 0.24428768 -1.2051469 114 96 32
0.71457636 0.24513604 -1.2029603 116 97 32
0.68678212 0.25643525 -1.2014345 112 94 31
0.69538236 0.25581604 -1.2050426 113 95 32
0.70487159 0.25607908 -1.2083771 114 96 31
0.71490777 0.25652716 -1.2061255 116 97 32
0.72175485 0.25636354 -1.2014633 111 91 28
0.6781413 0.2681438 -1.2009368 111 93 30
0.68578827 0.26558957 -1.2038432 112 94 31
0.69616228 0.26569995 -1.2084774 113 95 31
0.70117188 0.2627525 -1.2095078 114 96 31
0.7161774 0.26619744 -1.2083614 115 96 32
0.72324997 0.26524508 -1.2035284 111 92 28
0.66992193 0.2792969 -1.200078 111 94 30
0.67652488 0.27543294 -1.2030056 111 94 34
0.68542266 0.2756401 -1.2067546 111 94 31
0.69250113 0.27238983 -1.2090302 112 94 31
0.71727204 0.2714844 -1.2092601 114 95 31
0.72480756 0.27515087 -1.205236 110 91 27
0.73075807 0.2792969 -1.201172 111 90 27
0.66917062 0.2839914 -1.2012228 111 94 33
0.67789459 0.28362799 -1.2068583 111 94 33
0.68346065 0.28516471 -1.2086207 111 94 30
0.72634649 0.28476512 -1.2074372 109 90 27
0.73209226 0.28538683 -1.2021288 109 90 26
0.66784501 0.29318321 -1.203849 111 94 32
0.67347956 0.29386401 -1.2073226 111 94 32
0.68130386 0.29101563 -1.2092197 112 94 31
0.72866362 0.29436752 -1.2088636 109 90 26
0.73334306 0.29524866 -1.2033252 109 89 26
0.65812123 0.30454198 -1.2012318 110 93 31
0.66381377 0.30381367 -1.2044151 112 95 34
0.67293423 0.30352685 -1.2090809 110 92 30
0.73448193 0.30460331 -1.2050912 109 89 27
0.6534254 0.31575492 -1.2023228 111 95 34
0.66370541 0.31305879 -1.2077944 111 94 34
0.73620135 0.31364888 -1.2059309 108 89 27
0.74027395 0.31709561 -1.2010374 108 89 26
0.64745879 0.32589036 -1.2019958 111 95 33
0.65436631 0.32442379 -1.2058328 111 94 34
0.6620996 0.32224849 -1.2089924 111 93 32
0.73735553 0.323915 -1.208007 108 88 26
0.74087781 0.32486355 -1.2027249 109 88 25
0.63890612 0.33828047 -1.2010447 110 93 31
0.6443212 0.33416587 -1.2024391 112 95 34
0.65369749 0.3330937 -1.208873 112 94 34
0.73871458 0.33378908 -1.2089843 108 87 25
0.74242038 0.33449876 -1.2035416 108 88 26
0.63684618 0.34615505 -1.2016673 111 95 34
0.64498889 0.34523201 -1.2068846 111 94 34
0.65047383 0.34290668 -1.2091777 110 93 31
0.73965353 0.34179693 -1.208984 109 88 26
0.74329531 0.34594846 -1.2051779 108 88 25
0.62933987 0.35781077 -1.2010152 112 95 33
0.63613969 0.35584286 -1.2048692 112 95 34
0.64292914 0.35578609 -1.2086995 110 93 32
0.74495536 0.35523632 -1.2063407 108 89 26
0.62726665 0.36684614 -1.2029827 111 95 34
0.63510239 0.36542821 -1.2077091 112 94 33
0.6416803 0.3613281 -1.2094826 111 93 31
0.74659073 0.36442766 -1.2072576 109 88 26
0.6191687 0.3769922 -1.2011551 112 95 32
0.62463665 0.37645537 -1.2041504 112 95 34
0.6323989 0.37468377 -1.20869 111 94 31
0.74782634 0.37415355 -1.2089958 108 88 26
0.61647993 0.38605756 -1.2025952 111 95 31
0.62381452 0.38579434 -1.2071664 112 95 34
0.63048744 0.38085943 -1.209265 111 94 31
0.60789704 0.39719802 -1.2009119 112 95 33
0.61497939 0.39539206 -1.2043252 112 95 34
0.62209374 0.39603496 -1.2094815 112 95 33
0.60522765 0.40686208 -1.2023048 112 95 36
0.61479539 0.40461847 -1.2076383 112 95 34
0.59872282 0.41650042 -1.2019162 112 95 35
0.60547256 0.41613784 -1.2058057 111 95 31
0.61233938 0.41377002 -1.2089974 112 95 31
0.59416926 0.42806849 -1.2033613 112 95 36
0.60418415 0.42282227 -1.2077098 111 95 34
0.58784747 0.43553096 -1.2012006 112 94 31
0.59479398 0.43763584 -1.206835 111 94 33
0.60180098 0.4316406 -1.208984 111 95 31
0.58608872 0.44420579 -1.2034848 111 94 33
0.59394121 0.44470453 -1.2082227 111 94 30
0.57661366 0.45587009 -1.201721 111 94 34
0.58503824 0.45358485 -1.2065978 111 93 33
0.59175509 0.45109934 -1.2090199 112 94 31
0.56872237 0.46620548 -1.200871 111 94 34
0.57546955 0.46373317 -1.2042868 111 94 34
0.58244413 0.46439856 -1.2078754 112 94 32
0.56727839 0.47457802 -1.2035359 111 94 34
0.57556546 0.47249842 -1.2082207 111 94 34
0.58041507 0.47113964 -1.2087692 112 94 31
0.5589931 0.48536697 -1.2018201 111 93 33
0.56560016 0.48380333 -1.2058468 111 93 33
0.57227033 0.48428634 -1.209 111 92 29
0.5550226 0.49404424 -1.203022 110 93 35
0.56220484 0.49509126 -1.2079241 111 93 34
0.54850513 0.50539601 -1.2033713 110 92 33
0.5544939 0.50566602 -1.2073309 110 92 33
0.56092131 0.50357461 -1.2088338 111 92 30
0.53985143 0.51425552 -1.2028108 111 94 37
0.54426742 0.51691115 -1.2054341 110 93 33
0.55417573 0.51509601 -1.2087255 110 92 30
0.53392702 0.526752 -1.2028412 72 61 21
0.54283321 0.52543008 -1.2079252 110 93 33
0.55015379 0.52148438 -1.208984 110 92 30
0.52499413 0.53676736 -1.201982 36 30 10
0.53406811 0.53575468 -1.206573 55 46 15
0.54131258 0.53481734 -1.2089374 109 91 31
0.52435791 0.54693139 -1.2054769 55 45 14
0.53421807 0.54378402 -1.2083808 110 92 30
0.50948828 0.55416095 -1.2006383 0 0 0
0.51529205 0.55493331 -1.2037983 36 30 9
0.52291644 0.55523425 -1.2080252 55 45 15
0.50698352 0.56526977 -1.2031671 36 30 10
0.51443458 0.56495738 -1.2074363 54 45 14
0.52316314 0.56233895 -1.2084481 109 91 29
0.49759248 0.57570553 -1.2014508 55 46 15
0.50574386 0.57423294 -1.2035847 109 90 30
0.5152083 0.57383043 -1.2088709 109 90 30
0.48853534 0.581891 -1.2014117 0 0 0
0.49715504 0.58285731 -1.2054503 36 30 9
0.50479156 0.58359104 -1.2071294 109 90 30
0.5103839 0.58007813 -1.208984 110 90 30
0.47830486 0.59987766 -1.201746 0 0 0
0.48725078 0.593584 -1.2042956 36 30 9
0.49406031 0.59540784 -1.2061608 109 90 29
0.50174791 0.59159607 -1.2091419 109 90 29
0.45783544 0.60962027 -1.2038331 0 0 0
0.47728103 0.60574538 -1.2033141 27 22 7
0.48469836 0.6055811 -1.2057499 108 90 29
0.49184814 0.60434848 -1.2090656 108 89 28
0.45394063 0.61222237 -1.2032294 0 0 0
0.46371251 0.61573052 -1.2042785 54 45 14
0.47367764 0.61350358 -1.2055802 54 45 14
0.48359466 0.61367524 -1.2085875 109 90 28
0.45898443 0.62964737 -1.201172 109 90 30
0.46472514 0.62543613 -1.2027559 108 90 29
0.47403303 0.62416101 -1.2077742 108 90 28
0.45589235 0.63619113 -1.2025638 109 89 30
0.46453333 0.63425297 -1.2069652 108 89 30
0.470642 0.63072807 -1.2090336 109 90 29
0.44603035 0.64528841 -1.201075 108 89 29
0.45498309 0.64519542 -1.2064209 108 88 30
0.46193066 0.6415531 -1.2089841 108 89 29
0.43757638 0.65633321 -1.2015817 108 89 29
0.44509289 0.65431201 -1.2056329 108 89 29
0.45238793 0.65244496 -1.208874 108 89 29
0.42679667 0.66825134 -1.2011546 0 0 0
0.4357377 0.66574192 -1.2050455 46 38 12
0.44328782 0.66336304 -1.2087622 108 89 29
0.4195922 0.67622203 -1.2011287 0 0 0
0.42544302 0.67544085 -1.2041172 0 0 0
0.43299785 0.67479187 -1.2082751 0 0 0
0.40800035 0.68910426 -1.2013446 0 0 0
0.41602188 0.68554008 -1.2035285 0 0 0
0.42512658 0.68391621 -1.2081069 0 0 0
0.40614441 0.69556051 -1.2028106 0 0 0
0.41508445 0.6948961 -1.2074716 0 0 0
0.42059526 0.69335943 -1.208984 0 0 0
0.39640623 0.70684505 -1.2012291 0 0 0
0.40408564 0.70491713 -1.2048925 0 0 0
0.41257721 0.70480663 -1.2088686 0 0 0
0.39494678 0.71510416 -1.2029773 0 0 0
0.40344974 0.7139681 -1.2083234 0 0 0
0.37926421 0.72638494 -1.201172 0 0 0
0.38559335 0.72474158 -1.2026175 0 0 0
0.39462325 0.72444576 -1.2067876 0 0 0
0.4003906 0.72070313 -1.2094011 0 0 0
0.38585272 0.73242188 -1.2062631 0 0 0
0.39364541 0.73416698 -1.2087992 0 0 0
0.40066761 0.73549616 -1.2089841 0 0 0
0.7048828 0.19726561 -1.1909565 116 97 32
0.69636422 0.20597957 -1.191047 114 96 32
0.70472831 0.20546119 -1.1932863 115 98 33
0.71216518 0.20570816 -1.1923158 118 100 35
0.68945313 0.21469352 -1.1905717 113 95 31
0.69533658 0.21497589 -1.1933703 113 95 31
0.7056548 0.21559213 -1.1966692 116 97 33
0.714508 0.21436132 -1.193137 117 98 33
0.72070313 0.2167969 -1.190269 113 94 30
0.6873005 0.22539726 -1.1924137 112 94 30
0.69547659 0.22497249 -1.1961854 113 95 31
0.70387173 0.22262177 -1.1982847 115 97 32
0.71491182 0.2240234 -1.1957551 116 97 32
0.7214576 0.22618803 -1.192266 112 93 28
0.67773443 0.23632813 -1.190702 112 95 32
0.68558329 0.23475783 -1.1944337 112 95 31
0.69372123 0.23301494 -1.1981249 113 95 31
0.71700442 0.23432143 -1.1973642 114 96 31
0.72309697 0.23470598 -1.1938081 112 93 29
0.66992193 0.2480469 -1.190532 113 94 33
0.67655677 0.24489832 -1.1923196 111 94 34
0.68458545 0.24390826 -1.1968277 112 94 31
0.71679693 0.2402344 -1.199309 116 97 32
0.7245422 0.24448311 -1.1953855 111 92 29
0.66867161 0.25715321 -1.1924896 110 94 31
0.67497075 0.25758782 -1.1957974 111 94 33
0.68183678 0.25336081 -1.198687 112 94 34
0.72706467 0.25481308 -1.1964835 110 92 28
0.73152757 0.25789061 -1.1923058 110 91 26
0.66803855 0.26495528 -1.1933978 111 94 34
0.67672253 0.26279774 -1.1989386 111 94 33
0.72875398 0.26422107 -1.1981298 110 90 27
0.73287106 0.26596591 -1.1937402 110 91 27
0.65753645 0.27702871 -1.1920643 110 93 31
0.66299808 0.27330297 -1.1934515 111 94 34
0.67233109 0.27247036 -1.1990485 111 94 33
0.73460114 0.27529395 -1.1954195 109 90 27
0.65552449 0.28533536 -1.1932698 111 93 32
0.66175544 0.2835567 -1.1960683 112 95 34
0.73679054 0.28539619 -1.1960323 110 90 27
0.74023438 0.28515625 -1.1915636 110 90 28
0.64600968 0.29638672 -1.1913836 110 94 32
0.65365225 0.29466471 -1.194024 112 95 34
0.66180527 0.29206824 -1.1991858 112 95 34
0.7373538 0.29429182 -1.1978146 109 89 27
0.74142414 0.29499513 -1.1932211 109 89 27
0.63867188 0.30664063 -1.1904621 111 94 32
0.64477515 0.30535036 -1.1925664 112 95 35
0.6524694 0.30427885 -1.1974547 111 94 34
0.73959106 0.3027344 -1.1972661 109 89 27
0.74239784 0.30501738 -1.1947337 109 89 26
0.63744581 0.31635076 -1.1919611 112 95 34
0.64351261 0.31411263 -1.1944182 112 95 35
0.65039063 0.31295073 -1.199204 111 94 32
0.74444103 0.31412759 -1.1953071 109 89 26
0.63396406 0.32535565 -1.1921794 112 96 35
0.64321601 0.32363999 -1.198283 112 94 33
0.74521989 0.32368943 -1.1966048 108 89 26
0.62750602 0.33545434 -1.1920236 112 95 34
0.63554418 0.33435291 -1.196918 111 95 33
0.74690872 0.33253351 -1.1976997 109 88 26
0.61929429 0.34773114 -1.1906483 112 96 34
0.62616467 0.34589648 -1.1946511 112 95 34
0.63356698 0.34291798 -1.1984643 111 95 34
0.74804688 0.34375 -1.1991689 109 88 24
0.61773062 0.35707492 -1.19324 112 95 34
0.62486255 0.35522547 -1.1970505 111 95 34
0.60742188 0.36746654 -1.1909195 112 95 32
0.61419779 0.36735839 -1.1940277 113 95 36
0.62148631 0.36542726 -1.1985495 111 95 35
0.60794985 0.37618464 -1.1932433 112 95 34
0.61459416 0.37457889 -1.1973356 111 95 31
0.59925658 0.38761878 -1.1917698 112 95 35
0.60515147 0.385084 -1.1950803 112 95 32
0.61238575 0.38344806 -1.1985765 112 95 35
0.59533751 0.39729518 -1.192158 112 95 36
0.60371423 0.39458412 -1.1968305 112 95 35
0.58836567 0.40664062 -1.192129 112 96 32
0.59473515 0.40412739 -1.1948812 112 96 35
0.60213727 0.4003906 -1.1983962 111 95 32
0.58479452 0.41629332 -1.1920929 113 96 36
0.59273648 0.41511974 -1.197349 112 95 35
0.57796752 0.42589933 -1.1913451 112 95 35
0.58464724 0.42356545 -1.1949284 112 95 35
0.56835938 0.4394531 -1.190352 112 95 32
0.57557297 0.43389845 -1.1926827 112 95 34
0.583601 0.43487009 -1.1982347 112 95 35
0.56772786 0.44472414 -1.1918526 112 95 35
0.57508731 0.44306457 -1.1959236 112 94 34
0.58007813 0.4433594 -1.1989909 112 94 32
0.55774224 0.45710024 -1.1904161 113 95 35
0.56612659 0.45453119 -1.1946664 111 94 35
0.57414067 0.45140424 -1.1983316 111 94 34
0.55733609 0.46488702 -1.1933094 112 94 34
0.56466377 0.46279502 -1.1968663 112 95 34
0.54765624 0.47695312 -1.1912216 112 95 33
0.55539793 0.47479528 -1.1957128 111 94 35
0.56141764 0.47273159 -1.198248 111 94 31
0.54722291 0.48423189 -1.1936946 111 95 35
0.55337286 0.48522404 -1.1981031 111 94 34
0.53834593 0.49563676 -1.1922684 112 93 34
0.54368484 0.49621248 -1.1962248 111 93 34
0.55273438 0.49023443 -1.199 111 93 31
0.52929688 0.5076623 -1.1909961 111 93 31
0.53295469 0.5067398 -1.1935477 111 93 35
0.54135227 0.50512934 -1.1984305 111 93 34
0.52606606 0.51766783 -1.1933305 111 94 34
0.53364825 0.51629192 -1.1976027 111 93 34
0.51598358 0.52812862 -1.1918772 71 60 21
0.52425575 0.52648485 -1.196192 76 63 22
0.53239667 0.52148438 -1.1980073 111 93 30
0.50976563 0.53710938 -1.1903352 110 92 30
0.51535708 0.53666306 -1.1950531 55 46 15
0.52286988 0.53448707 -1.1973314 111 93 31
0.50702262 0.54333436 -1.1923311 55 46 15
0.51416057 0.54534686 -1.1982137 55 46 15
0.52148438 0.54101563 -1.199028 111 92 30
0.49766856 0.554048 -1.1909709 55 46 15
0.50452471 0.5548439 -1.1964756 36 30 9
0.51226467 0.55273438 -1.1984695 111 92 29
0.48774695 0.56196272 -1.1902108 0 0 0
0.49694371 0.56297392 -1.1955129 36 30 9
0.50331837 0.5635497 -1.1976248 110 91 30
0.48764893 0.57351243 -1.1949192 36 30 10
0.49397862 0.57413399 -1.1966162 110 91 30
0.47776628 0.58422261 -1.1931739 55 45 15
0.48250437 0.58395815 -1.1961071 55 45 15
0.49133003 0.58104646 -1.198004 110 91 29
0.42793834 0.59408259 -1.1900935 0 0 0
0.43935937 0.59673315 -1.1959565 0 0 0
0.46841776 0.59610653 -1.1919086 55 45 14
0.47553298 0.59431314 -1.1967809 36 30 10
0.48327142 0.59233993 -1.1983447 109 90 29
0.4354786 0.60499293 -1.1954333 0 0 0
0.45591384 0.60725951 -1.1906936 55 45 15
0.46342179 0.60556561 -1.1950547 27 22 7
0.47138965 0.60370362 -1.1981797 54 45 14
0.45701268 0.61355257 -1.1963321 54 45 15
0.46420047 0.61424285 -1.1969293 109 90 29
0.4707031 0.61132813 -1.199432 110 90 29
0.44661111 0.62631065 -1.1921507 109 90 30
0.45503089 0.62455976 -1.196346 109 90 30
0.43843198 0.63780844 -1.1926534 109 91 30
0.44530091 0.63474894 -1.1953633 109 90 30
0.45199975 0.63180524 -1.1981424 109 90 30
0.42773443 0.64648438 -1.1902291 108 90 30
0.43559289 0.64492285 -1.1943245 109 90 29
0.44300652 0.64218491 -1.1975747 109 90 30
0.41992193 0.65820313 -1.191865 70 58 20
0.4264091 0.65517855 -1.1938471 109 90 29
0.43401501 0.65292561 -1.1973867 108 89 29
0.4082031 0.66992188 -1.190999 0 0 0
0.41653311 0.66659045 -1.1943508 1 1 0
0.4249776 0.66326427 -1.1974618 11 9 3
0.40561703 0.67596763 -1.1927958 0 0 0
0.41381356 0.67585427 -1.1973307 0 0 0
0.3963007 0.68694913 -1.1920305 0 0 0
0.40425774 0.68476146 -1.1959453 0 0 0
0.4121094 0.68164063 -1.198979 0 0 0
0.38867193 0.69546276 -1.1909498 0 0 0
0.39480087 0.69497937 -1.1950212 0 0 0
0.4003906 0.69391149 -1.198193 0 0 0
0.3769531 0.70898438 -1.1906461 0 0 0
0.38662621 0.70598996 -1.1932576 0 0 0
0.39305288 0.70489502 -1.1976256 0 0 0
0.37620202 0.71457106 -1.1935216 0 0 0
0.38442919 0.71474874 -1.1967982 0 0 0
0.3417969 0.72460938 -1.190541 0 0 0
0.36783856 0.72460938 -1.1927234 0 0 0
0.37502602 0.72285146 -1.1951821 0 0 0
0.38263497 0.72070313 -1.1993608 0 0 0
0.69772238 0.16900276 -1.1810442 115 98 33
0.70545352 0.16628057 -1.1817591 117 99 34
0.71237558 0.1699219 -1.180939 119 101 36
0.68945313 0.1777344 -1.1801591 113 96 33
0.69492126 0.1751906 -1.1819087 114 97 33
0.70556641 0.17642072 -1.1849223 116 99 33
0.71332794 0.17533806 -1.1819987 120 102 35
0.68787873 0.18626207 -1.1816653 112 95 32
0.69496453 0.18584146 -1.1848558 114 96 33
0.70451647 0.18489252 -1.1870815 116 98 33
0.71456337 0.18534669 -1.1837437 119 100 34
0.72059441 0.18780839 -1.18099 113 95 30
0.68538731 0.19544338 -1.1831138 112 95 32
0.69542003 0.19569275 -1.1879718 114 96 33
0.70504671 0.19303611 -1.1895442 116 98 33
0.71485949 0.19584818 -1.1868981 118 98 33
0.72236383 0.1954819 -1.182025 112 94 29
0.67709804 0.20550403 -1.1815634 111 94 32
0.68537366 0.20506218 -1.1857556 112 95 32
0.69319445 0.20431347 -1.1892468 113 95 32
0.71668559 0.20481551 -1.1885529 116 97 33
0.72376341 0.20558038 -1.1838403 112 93 29
0.66992188 0.21822722 -1.1811806 112 95 32
0.6754238 0.21525981 -1.1832904 111 94 31
0.68455184 0.21429738 -1.1879197 112 94 31
0.71993762 0.21289061 -1.189453 113 94 30
0.72537059 0.21471043 -1.1850327 112 93 29
0.66791731 0.22536804 -1.1819936 111 94 31
0.67462534 0.22360134 -1.1831981 112 95 33
0.68208641 0.22314611 -1.1891825 111 94 30
0.72672898 0.22437908 -1.1871377 111 92 28
0.73228616 0.22539796 -1.1818017 111 92 28
0.65820313 0.23632811 -1.1801171 110 92 31
0.66679776 0.23325008 -1.1824358 111 94 33
0.67601603 0.23232929 -1.187374 112 94 34
0.72819018 0.23476036 -1.1890935 111 92 29
0.73331386 0.23510773 -1.183489 111 91 28
0.65658957 0.244752 -1.181866 110 93 31
0.66633582 0.24403791 -1.1855521 112 95 34
0.67093146 0.2428927 -1.1883711 111 94 34
0.72979647 0.2402344 -1.189453 111 92 29
0.73466319 0.24416789 -1.1848028 110 91 28
0.74023438 0.2480469 -1.180099 110 90 27
0.64739537 0.25976563 -1.1809019 110 93 31
0.65677106 0.25345629 -1.183291 111 94 33
0.66511965 0.25404894 -1.1882896 111 95 34
0.73538876 0.25484142 -1.1868987 110 91 27
0.74073207 0.25595656 -1.1820397 110 91 28
0.64744717 0.2672385 -1.1822207 112 95 35
0.65379226 0.26367414 -1.1841466 112 96 35
0.66034794 0.26317275 -1.1883659 111 94 34
0.73677582 0.26494563 -1.1884297 110 90 27
0.74233919 0.26620308 -1.1830484 110 90 27
0.6387673 0.2773079 -1.1816125 110 94 33
0.64495033 0.2748082 -1.1841868 110 93 33
0.65213323 0.27408683 -1.186986 111 95 34
0.73881418 0.27325994 -1.1894531 110 90 27
0.74337971 0.27597624 -1.1855687 110 90 27
0.63604712 0.28527895 -1.1822 110 93 31
0.64432287 0.28545564 -1.1853962 111 94 35
0.651227 0.28369403 -1.1894426 112 95 35
0.74469626 0.28495562 -1.1865261 109 90 27
0.62745929 0.29882813 -1.1813691 111 93 33
0.63540494 0.2958546 -1.1830962 112 95 35
0.64325523 0.29450834 -1.1876222 112 95 35
0.74583286 0.29349008 -1.1881751 109 89 27
0.62618995 0.3068229 -1.1814137 112 95 35
0.63463891 0.30498809 -1.1859212 112 95 35
0.74756658 0.30433196 -1.18923 109 90 27
0.61839455 0.31582987 -1.1811489 112 95 32
0.62579286 0.31493801 -1.1839635 112 95 34
0.63386708 0.31466526 -1.1889439 112 95 34
0.61695981 0.32600909 -1.181744 112 96 35
0.62594938 0.32455847 -1.1872728 112 95 35
0.60767692 0.33611745 -1.181522 112 95 32
0.6167618 0.33570877 -1.18495 112 96 34
0.62352395 0.33287728 -1.1882838 112 96 34
0.59960938 0.34960943 -1.1804171 112 95 33
0.60768139 0.3469438 -1.1828408 113 96 34
0.6157198 0.34488189 -1.1871185 113 96 34
0.59859908 0.35554656 -1.1816531 112 96 33
0.60650492 0.35597372 -1.1854036 112 96 34
0.61135191 0.35480258 -1.1892927 111 95 32
0.5979889 0.36509633 -1.1824455 113 96 35
0.60480928 0.3646417 -1.1885958 111 95 32
0.61159235 0.36041993 -1.1890502 114 97 37
0.58803654 0.37504384 -1.1815679 112 95 33
0.59343398 0.37680012 -1.1839646 113 96 36
0.60152411 0.37532485 -1.1883677 113 96 36
0.58477724 0.38526484 -1.1830255 112 95 33
0.59339446 0.38370666 -1.186389 113 96 35
0.57830513 0.39682513 -1.1812422 114 97 36
0.58561289 0.39443833 -1.1850513 113 96 36
0.59187007 0.3914513 -1.188061 113 96 35
0.56835938 0.4082031 -1.1803409 113 96 33
0.5754447 0.40545315 -1.1823453 113 96 35
0.58341157 0.40289807 -1.1866771 113 96 35
0.56818658 0.41535851 -1.1811274 113 96 36
0.57470596 0.41420591 -1.1848506 112 95 35
0.58183432 0.41192675 -1.1888696 112 96 35
0.56556684 0.42427588 -1.1825777 112 95 35
0.57404757 0.42569777 -1.1886222 113 95 36
0.55674666 0.43479145 -1.1809473 113 96 36
0.56513995 0.43591338 -1.186484 112 95 36
